# 3D point list with one line of data per point:
#   POINT3D_ID, X, Y, Z, R, G, B, ERROR, TRACK[] as (IMAGE_ID, POINT2D_IDX)
# Number of points: 393, mean track length: 4.177777777777778
474 -3.464088994555949 -2.4791063943445901 8.182028721432836 150 149 136 0.25192480301597409 3 3337 1 668 4 3397
473 -2.0453893178246583 -4.968775058364856 8.765374417169209 103 81 57 0.28541288988809826 3 3482 7 2689 1 537
472 -3.1200971036063754 -2.9433268844230969 8.1281836093886835 38 33 18 0.29443223350065229 3 2383 7 4818 1 520 4 2184
469 -3.5352431490417549 -6.6798400634899773 8.4961435546861335 104 80 56 0.80063420817178044 3 3162 1 435 4 3440
468 -1.1752336012337712 -0.97834521667484386 8.4577924281996388 25 26 30 0.62817840062087638 3 1650 5 1561 1 426 4 1439
467 -3.475280606856459 -2.4383749313688088 8.1676049412139218 18 18 21 0.51791410429574924 3 1418 5 1306 1 358
466 -3.1313317180518321 -3.1048828114040177 8.1153376847869794 19 16 2 0.13797740512090703 3 1438 7 3074 1 339
465 -3.5516627162235115 -2.7554753584787273 8.1463830922066602 28 21 11 0.36460192389276297 3 1400 1 331 4 1050
464 -1.3438082824077768 -1.2086712587872945 8.40480471293988 40 38 39 0.56275954458944566 3 655 5 854 7 682 1 235 4 451
463 -3.2040015020710895 -2.9545809427143386 8.1281452260897886 25 26 25 0.268792608637688 2 275 1 190 4 1103
462 -3.0907149505997373 -3.3083770842810512 8.0898931596812478 25 20 11 0.27855205083600332 2 238 7 1437 1 184
461 -3.0911056231516292 -3.3090501392190297 8.090835162804586 25 20 11 0.23077527638156783 2 239 7 1438 1 183 4 330
460 -2.9976257268664543 -3.4376142164002452 8.0718459605833317 79 88 96 0.31943724916167354 3 415 5 538 1 179
459 -2.9976257268664543 -3.4376142164002452 8.0718459605833317 79 88 96 0.31943724916167354 3 416 5 537 1 178
458 -3.600800348588642 -2.7570939328015585 8.1546791157492411 121 120 118 0.12112840010807073 2 277 3 366 1 177
457 -3.6542222897038963 -2.7113775395158712 8.1235236955493342 9 13 25 0.47219145354264147 2 598 3 365 1 174
456 -4.3816232866879199 1.1103857038087439 9.5626302728634727 160 131 104 0.23823878768883233 2 2310 3 5774 1 1128 4 6275
455 -4.3816232866879199 1.1103857038087439 9.5626302728634727 160 131 104 0.23823878768883233 2 2309 3 5773 1 1127 4 6274
454 -4.5119088702431798 1.4144970297062656 9.5432231225320372 164 138 113 0.3356669450792043 2 2294 3 5772 4 6207
453 -4.511908870243178 1.4144970297062645 9.5432231225320354 164 138 113 0.33566694507914291 2 2293 3 5771 4 6206
452 -5.7331337076497331 1.6605983921378138 9.5963624822249969 156 134 110 0.70904939450865834 2 2282 3 5760 4 6190
451 -3.6292501255522147 -2.7792333220508025 8.1098132228974116 14 20 32 0.26567069321814346 2 2254 3 5757 1 1053 7 7561
450 -2.8341645761946315 -3.1210133394634698 8.1125148346665412 125 120 91 0.57035771943686342 2 2173 3 5481 4 5552
449 -1.1956140523818379 -1.141564987979595 8.4602130296596343 125 123 111 1.0036121295135536 2 1871 3 5215 1 888 4 4979
448 -1.1956140523818379 -1.141564987979595 8.4602130296596343 125 123 111 1.0036121295135536 2 1870 3 5214 1 887 4 4978
447 -1.7134583919745761 -1.1293968841540938 8.3981839781213896 113 111 96 0.2741824872990043 2 2065 3 5167 1 1008 4 4913 5 3714
446 -1.8039112596775966 -1.2151749740918638 8.3809096618348722 151 148 117 0.3793853231935238 2 2051 3 5155 4 5607
445 -2.5501735441374107 -2.9073862667030168 8.1386561531607846 110 111 94 0.34200318660752393 6 7172 3 5084 1 936
444 -2.5501735441374107 -2.9073862667030168 8.1386561531607846 110 111 94 0.34200318660752393 6 7171 3 5083 1 935
443 -2.6586607141271124 -2.8833621866872248 8.1358273686446285 16 21 25 0.47393159256619016 2 1987 3 5080 1 932
442 -4.5993502756825464 0.32196524619849481 9.4613727672049013 164 140 114 0.21569166501671577 2 2225 3 5070 4 5516
441 -4.5739851661359383 0.055164057303791592 9.4248229635667098 151 130 101 0.93997489865780837 2 2069 3 5065 4 5518
439 -3.1939072672772433 -2.1431608326106213 8.036183895309895 146 143 113 2.0239789438225215 6 7215 3 5043 4 4711
438 -6.3930433858533879 -1.258924599724716 9.2082631926731011 157 135 111 0.83901731019154957 2 2009 3 4947 1 920 7 7586 4 4498
436 -3.3446600580174941 -2.6646848247635342 8.1687599378467493 26 23 14 0.12557974962582583 2 1474 3 4350 1 665
435 -3.6651001771142058 -2.3417318344974452 8.1809864197910436 171 164 145 0.63482852940987855 6 7217 3 4335 4 4660
434 -3.6651001771142058 -2.3417318344974452 8.1809864197910436 171 164 145 0.63482852940987855 6 7218 3 4334 4 4659
433 0.39144726425944498 -0.98564647103910397 9.3451746208320969 142 121 97 0.34027510266922018 6 4542 3 4141 4 4329
432 -2.5473420399805837 -2.980964750194353 8.137439781405833 14 16 26 0.71737467623092233 2 1740 3 3428 1 692
431 -2.7043264414839601 -3.2171891185985504 8.1089417736819485 154 155 134 0.34099366244084062 2 1449 3 3397 1 673 4 3524
430 -2.7918609336937235 -3.1151862650173423 8.1170365342785011 148 146 123 0.039386694437250298 6 4210 3 3389 4 2259
429 -3.0606455734926445 -2.8902941281464445 8.135354006767777 34 28 16 0.25164139547542858 2 1464 3 3370 1 532 7 6163 4 2201
428 -1.4171569417647623 -0.83800606069001149 8.4612039312629292 44 46 41 0.29244999617204898 6 2943 3 2709 1 425 7 3822
425 -3.093501040812086 -2.9837122118289021 8.1231954975226461 160 152 141 0.21133885408302291 2 1046 3 2385 1 517 7 4806 4 2192
424 -3.10795456110427 -3.1358456802087042 8.1041857229399987 160 157 142 0.63602979581905372 2 583 3 2375 1 496 4 1113
423 -3.1479405393402238 -3.0705928498043362 8.1085507926901261 150 145 141 0.3237026733339039 6 4257 3 2372 1 499 4 1109
422 -3.7250105381140637 -2.3300527830306788 8.1717231256392093 44 40 39 0.31244265130538645 2 666 3 2296 4 2121
421 -5.8315154342644693 -1.1874866797607035 9.2215270196108676 164 142 118 0.33831217921876294 2 1171 3 2122 4 869
420 -1.7671825597830448 -1.2158595979565061 8.3922352870444996 148 144 119 0.23260209335849855 6 2863 3 1572 4 429
418 -3.0056612735084585 -3.2271800808924991 8.0909544036333738 33 25 12 0.52698878994880982 2 246 3 1452 1 343
417 -4.1059043599566492 -4.8101135130359802 8.7911992403549117 98 76 55 0.55230174969040757 2 206 3 1291 4 1051
416 -1.2488320637354149 -1.1155493576643767 8.420623126050657 37 41 28 0.2262485832801624 2 843 3 676 4 463
415 -1.4579498463010743 -0.88490887671712493 8.4459365902997519 43 43 36 0.67794755811789886 2 442 3 653 1 238 7 782
414 -3.9103798326474166 -2.4175309184056375 8.1684528932494747 120 124 127 0.22318047378743963 2 296 3 349 1 173
413 -4.4914486940534868 1.0090389765436882 9.5458909724548455 152 129 97 0.76250105368658205 5 4502 2 2287 3 5770 1 1124 4 6208
412 -1.3640454071911585 -0.79581955779661429 8.4705975230794728 156 146 119 0.36277608487332713 5 4104 2 2232 3 5573 1 1103 4 5618
411 0.91766259350273638 -3.1762989463130582 9.0530313810559644 117 94 72 1.0232276941986032 5 4001 2 2200 1 1110
410 -1.5489805149694447 -0.87755284076912177 8.4490749201100304 3 9 16 0.68513430166910394 5 4097 2 2099 3 5181 1 1016 4 4931
409 -4.4106113807263476 -0.073322734595157368 9.3767598382819344 114 90 64 0.42115867506940569 5 4383 2 2064 3 5072
408 -3.2669526513237708 -2.1799834561656386 8.2153806573117603 6 11 24 0.47119495985151755 5 4042 6 7219 2 2010 3 5044
407 -1.2511007210094025 -1.1517315653316069 8.4134195286147353 4 4 12 0.58333319289745311 5 3710 2 1862 1 881
406 -6.1348135238690631 0.6091723124096553 9.483327575037654 129 103 76 0.2278035182666629 5 4234 2 1810 3 4274
405 -5.9449247621165293 0.45481833394646143 9.4740061407365648 129 103 78 1.0234356716447246 5 4206 6 7502 2 1808
404 -5.5010781801226694 0.063150401403892498 9.4173203047332201 124 100 74 0.55306434110829095 5 4175 2 1797 3 4319
403 -5.495023016543386 0.065944289455644234 9.40582734568798 124 100 74 0.67407481402694414 5 4174 2 1796 3 4318 4 4580
402 -3.7507499276468605 -2.5408434187916544 8.1543625684975929 174 170 145 0.28269867475569255 5 3604 2 1729 3 4998 1 784
401 -4.0880695432491114 0.77651993326692204 9.5133987369088295 117 93 67 0.29304161733963491 5 3875 2 1629 3 2529
400 -1.1007051670658912 -1.2890431339638457 8.4129500369021297 0 3 19 0.21393937611697478 5 3031 2 1607 4 3948
399 -7.4213573762639138 0.90798194981608782 9.5388540484065754 123 97 70 1.1845570394537666 5 3417 2 1551 3 1994
398 -6.9003028611332589 0.62883666535765259 9.4390410196523309 122 99 70 0.91153473116059525 5 3859 2 1548 3 3069
397 -3.4049401941372115 -2.4912530660996706 8.173810963952322 18 14 14 0.60450019729623794 5 2061 2 1484 1 529 3 2358 4 1073 1 361
396 -2.8999031944452178 -3.3625749547603769 8.0735874943186747 9 14 18 0.24947038595822257 5 1917 2 1424 1 656
395 -3.5696499340241501 -2.5549091280108378 8.1548523546064811 15 17 16 0.47017511037366128 5 2047 2 1098 3 2322 1 498
394 -3.4848220989937104 -2.6997472432769585 8.1551779984550965 172 161 143 0.90487334791089624 5 2027 6 4352 2 1077 3 2329 1 495
393 -2.694566625449252 -3.1598354912621569 8.1129020432544809 19 20 22 0.51509788517667776 5 579 2 1060 1 376
392 -2.8476335165935289 -3.0728763897403422 8.110050052107912 192 178 165 0.47877987430112129 6 4229 2 1051 3 2439 1 539
391 -3.3177586497699143 -3.0244724567090064 8.1182711807788266 12 14 13 0.71533608044817099 6 4277 2 1017 1 489
390 -2.9753970135393923 -3.2539950063200016 8.0941404605068517 179 169 143 0.27647241923099097 6 4184 2 1007 3 2395 4 2220 5 1946
389 -3.5269503509191833 -2.3696434748425212 8.1815561649725552 157 162 159 0.28994759952925986 6 2723 2 671 3 400
388 -3.5269503509191833 -2.3696434748425212 8.1815561649725552 157 162 159 0.28994759952925986 6 2722 2 670 3 399
387 -5.8685630067766015 -2.0925178125541448 9.1058268305306367 141 116 94 0.16492027701274006 5 1455 2 635 3 1147
386 -2.8701803745339478 -2.9900903561359833 8.1387335509088405 17 14 21 0.65711885247993918 5 610 2 626 3 1486 6 1170 1 374 4 351
385 -3.1885115930857975 -2.9824627194553273 8.1334403809566052 19 15 14 0.37143107426979866 5 1227 2 596 3 2370 4 2168
384 -3.1047777612224694 -3.1342032841131369 8.1018362784078501 189 181 168 0.67579905843596233 5 1200 2 584 3 2376 1 497 4 1114
383 -7.3595660382191816 -2.5081190606370494 9.0487815361895709 149 123 96 0.49596581960219338 5 1394 6 4766 2 525
382 -3.9941510729169716 -0.36753233028946064 9.3683595369346868 130 109 83 0.19606823298124323 6 2063 2 423 3 505
381 -2.6644101373414681 -3.2109112848132737 8.1218181108060765 21 19 11 0.35313218934905688 5 1178 2 279 4 374
380 -2.9084905560946952 -3.299150833246177 8.0797041212835516 104 108 111 0.22163501328447902 5 558 2 242 1 346
379 -2.856999449491985 -2.5729647558157147 8.1713223904877506 22 27 20 0.19386476364021779 5 187 1 71
378 1.1328152978365256 -0.97113952783873292 9.3640841466913383 175 144 124 0.74711272366665604 7 7406 6 7226 5 4359
377 -1.7576003472849702 -1.1740988616616412 8.3667244293400298 24 23 26 0.27134957406614513 5 860 6 2867
376 -6.3692396535507037 -3.0454641697264959 8.9818668231157908 181 153 131 1.2233132912334141 5 4517 6 7779 4 6172
375 -7.8164114421960047 -4.1304525617116443 8.8024926822723213 180 150 124 1.7434067613262598 5 4512 7 7717 6 7778
374 -5.1061586882731813 -4.0691654982993732 8.8769316951768644 119 92 73 0.891643564665901 5 4511 6 7774 4 6320
373 -1.3512910558735953 -0.99703562900396858 8.4397141076267896 32 40 53 0.40961248140015477 5 4520 7 7710 6 7766 2 2322 1 1173
372 -3.2963090725060571 -2.8368768518675531 8.1515216403757886 20 30 40 0.55723943077306481 5 4514 6 7760 2 2316
371 -7.4494929824003044 -4.5409662032550342 8.7340908824448071 143 112 91 0.75866453241543086 5 4486 7 7690 6 7737
370 -7.4494929824003044 -4.5409662032550342 8.7340908824448071 143 112 91 0.75866453241543086 5 4485 7 7689 6 7736
369 -5.8632438701020888 -3.3940570942296944 8.9454181753769877 109 81 57 1.2360632528206605 5 4012 6 7540 3 4937
368 -7.196468583840697 -4.6867614088438732 8.7375026627071559 145 117 93 0.5651716016657593 5 4305 7 7519 6 7532
367 -0.43580353005335642 -2.8841464717547098 8.9567712926782068 197 170 141 0.20837491340493264 5 4489 6 7525
366 -5.1511434148940731 0.64765413581241438 9.5220829414258681 139 113 86 0.37436652610309623 5 4237 6 7498 3 5038
365 -8.1910737486231575 -2.5683765350670202 8.9912751511184883 152 124 102 0.46225483488098223 7 6967 6 7304 2 1685
364 -8.2921781962989822 -2.8468982993334109 8.9379002989174534 194 168 143 0.56071415888390674 7 7338 6 7283 2 1368
363 1.1944587839758727 -0.2923279048198586 9.5250064560589074 185 157 136 1.5504851656345815 5 4147 7 7146 6 7260
361 -7.6980620944222933 -3.1793049212904969 8.9446318612259326 192 166 139 1.2080238333329016 5 3616 6 7254 2 1366
360 -1.460075571787482 -0.8792349991346784 8.4567423035344298 54 53 52 0.50521969186797033 5 4099 6 7250 2 2106 3 5189 1 1018
359 -1.4601269293163546 -0.87961460018140358 8.4561411237097115 54 53 52 0.56843172020990096 5 4098 6 7249 3 5190 1 1019
358 -1.8083330180010613 -1.2157370665248983 8.3890102073837056 152 155 138 0.42215744919423304 5 4081 7 7052 6 7240 1 1002 3 5154 4 5606
357 -1.8099337510983076 -1.2186080396725372 8.3946733874516148 152 155 138 0.18346532816954769 5 4080 6 7239 2 2050 1 1003
356 -1.3291325712226782 -1.1017753342286163 8.4288651025427672 31 37 51 0.67454307639574618 5 4089 6 7238 2 2226 3 5568 1 1099
355 -6.2666649931809539 -3.324261423078291 8.9877994467597908 187 159 137 0.57704295459506649 5 4018 6 7235 4 5403
354 0.68739489265613674 -1.1549696008705845 9.4255273435415887 206 182 158 1.8521382299202822 5 4100 7 7094 6 7230
352 -6.1322895271068507 -3.4431784843548785 8.964080951551157 198 170 148 0.47384426560983584 5 4011 6 7222 4 5407
351 -3.1971340969164634 -2.2435366423153393 8.2001805065941387 130 127 118 0.067956018226723022 5 4037 6 7214 2 2007
350 -3.1343869182345467 -2.3178447455720508 8.2015747624622026 24 30 46 0.18513810066085004 5 4034 7 6975 6 7208 2 2004 4 4737
349 -7.7282992406799922 -4.6430001882160576 8.7649238397261158 185 158 131 0.24772852078357252 5 3515 7 6806 6 7198
348 -7.8765061773606924 -4.8544529145002153 8.7211446965335515 148 117 96 0.57667664085990589 5 3494 7 7256 6 7189
347 -7.8765061773606924 -4.8544529145002153 8.7211446965335515 148 117 96 0.57667664085990589 5 3493 7 7255 6 7188
346 -2.7601769088324768 -2.6850843145806613 8.167133603607958 69 67 52 0.35701725783869986 5 3590 6 7186 2 1994 3 5074 1 806 4 4775
345 -2.7601769088324768 -2.6850843145806613 8.167133603607958 69 67 52 0.35701725783869986 5 3589 6 7185 2 1993 3 5073 1 805 4 4774
344 -2.9679524385895117 -3.358174481710174 8.0949303560909769 26 31 43 0.34860319727214545 7 7311 6 7152 3 5476 1 924 4 5545
343 1.4011001918283243 -2.7588267738726246 9.1428894204595608 214 184 160 1.3776622222452211 5 4019 7 7357 6 7135
342 -4.8148847731988447 -4.9843486114325186 8.7096622351509794 151 123 100 0.52008066701810685 5 3461 6 7128 3 4948 1 770
341 -6.6228602918355852 -2.0290665492487903 9.0772007242621946 198 170 148 0.88150298711348807 7 7011 6 6857 2 1445
340 -1.1563588271515333 -1.1628276555464025 8.424518726817654 169 168 164 0.64367708418495895 7 6410 6 6781 2 1869
339 -1.1563588271515333 -1.1628276555464025 8.424518726817654 169 168 164 0.64367708418495895 7 6409 6 6780 2 1868
338 -1.2014223344005346 -1.2074007179277468 8.4127508832581732 30 31 36 0.36852656668955819 7 7058 6 6778 3 5206 1 882
337 -1.0632673620701876 -1.248699580886738 8.3905352894541174 151 149 139 0.63798786079499392 7 6395 6 6770 1 891
336 -1.0463645388377105 -1.292027503570031 8.4640381059358951 151 149 139 1.7567735465692427 7 6394 6 6769 2 2091 1 1025 4 5638
335 -8.2106048498606636 -4.0902610250456322 8.8206885206926149 150 119 98 0.82754328693547441 7 6842 6 6763 5 3562
334 -0.95478889120002508 -1.3929490677734728 8.4748121614645928 155 156 142 1.0106935556057988 5 3689 6 6762 2 2089
333 -0.90126685336817025 -1.4225045250069028 8.3960878380612876 177 177 169 0.48467514229200687 5 3683 7 7037 6 6753 2 2082 3 5234 1 1030 4 5013
332 -3.6208144948347263 -2.30000423952941 8.1873571792436461 184 171 152 0.55223346067230195 5 2916 7 6974 6 6752 2 1752 3 4339 1 794 4 3377
331 -3.3461629793531862 -2.5956702520748829 8.1595354421894495 184 177 157 0.42042408306892698 7 6958 6 6734 2 1738 3 4351 1 796
330 -7.9617688758469907 -4.7346708201877394 8.7305675086517827 151 121 97 0.24943838220766956 5 2770 7 6798 6 6731
329 1.4793625310709722 -1.9110697641509842 9.2676561610651884 183 157 134 0.26339099682550088 5 3670 7 6343 6 6718
328 1.4793625310709722 -1.9110697641509842 9.2676561610651884 183 157 134 0.26339099682550088 5 3669 7 6342 6 6717
327 -5.4366821856549681 -4.3611113466108868 8.8209030224794631 148 120 98 0.55432322218309626 5 2787 6 6705 2 1356
326 0.85355572932792356 -2.3064205833604534 9.1973724448901564 209 178 156 1.6796745699313276 5 3642 7 7009 6 6701
325 -3.0948664744796162 -3.0795700154730778 8.1136717942204406 36 24 32 0.48358582581597326 7 6922 6 6700 2 1718
324 0.72875689306394531 -2.6683171326082875 9.1705677495459561 167 139 118 0.43571417877415586 7 6248 6 6669 2 1853
323 -2.855102538250494 -3.3335667822326243 8.0914337199599018 21 23 36 0.20075518942452128 5 2803 6 6657 1 660
322 -5.9208198400700063 -4.9767046652008826 8.7367574753667174 150 122 100 0.69617111936381126 5 2730 6 6655 4 4502
321 0.81351070470857378 -2.7683491118166974 9.174500537469477 174 143 123 1.4736415741185411 7 6976 6 6652 2 2078
320 1.2930003934637226 -2.7510854310919841 9.1351599949623168 181 151 127 1.1483404250106886 7 6238 6 6635 5 3606
319 -7.5920534017229997 0.045881101824004622 9.3880825026865509 137 109 90 0.051075645101487648 7 5620 6 6586 3 906
318 -7.4097536333072638 -0.24123590785547044 9.3561602946864841 134 112 85 0.24629333374473308 7 6542 6 6512 3 2950
317 -6.8532288154095289 -1.0036126079328596 9.2568144151195586 126 99 73 0.48003196609710841 5 2485 7 5346 6 6301
316 -6.8532288154095289 -1.0036126079328596 9.2568144151195586 126 99 73 0.48003196609710841 5 2484 7 5345 6 6300
315 -6.296579772278192 -1.7455343427347949 9.1480970899652334 139 111 89 0.54195932107013578 7 6322 6 6142 3 3000
314 -6.2999097913460114 -1.751843207775019 9.1588569624358449 139 111 89 0.6457180264086525 7 6321 6 6141 2 1115 3 2999 1 463 4 3159
313 -5.3591127808059449 -2.0037877267263906 9.1612666425053106 156 128 106 0.84695883095770375 7 5070 6 6065 2 1127
312 0.095158826482890424 -0.52344709114540811 9.4055023181690007 203 181 157 0.91393404798141964 5 3175 7 5546 6 6038
311 -6.6713630458842648 -2.8546286726256827 9.0325761766743433 148 120 98 0.48805950939889309 5 2939 6 6022 4 1755
310 0.20833344676636423 -0.88603494148764472 9.3280535301459011 203 181 158 0.92620693220737038 5 3138 6 5988 3 4873
309 0.43922651626485487 -0.97536099924443964 9.3439593229074536 181 152 133 0.22277470295618734 7 5438 6 5976 3 4147 4 4345
308 0.4395121880180014 -0.97601843195465565 9.3454780498845551 181 152 133 0.20715260878778261 7 5437 6 5975 3 4146
307 -1.2264783406618733 -1.2671143742676885 8.4052041249163238 172 174 169 0.44952054376792933 5 3693 6 5964 2 1848 3 3839 4 3903
306 0.88473088045171655 -1.199195495083982 9.3146199776731837 215 185 161 0.4163336560322925 5 3099 7 5369 6 5936
305 1.1216602272097353 -1.2194197503025375 9.3542996248074726 184 157 130 0.37618136096706783 5 3094 7 6442 6 5924
304 -3.0236099071125246 -2.3420411826406302 8.2202939004517859 27 31 32 0.24064550626738809 7 4929 6 5894 2 1489
303 1.0714879013332368 -1.4787520259294196 9.2732730886031565 163 137 112 0.89247529606912135 5 3043 6 5889 7 6396
302 -7.371973523798804 -4.4908065912931177 8.8069799373261688 189 160 136 1.3985017418728789 7 5981 6 5874 5 2790
301 -7.9374297406136538 -4.6262390209010205 8.7319060742060355 189 159 135 1.6156582852316539 7 6805 6 5873 5 3514
300 -3.3989153592138277 -2.6445236176472204 8.1553886377323099 178 172 144 0.44739768057020723 5 2879 6 5872 2 1471 3 4347 4 3401
299 -3.2088383245863219 -3.0539207373728914 8.1144931993032028 39 32 26 0.44837951508623125 5 2845 7 6136 6 5812 2 1441 3 3348 1 655 4 3437
298 -2.4794953396819093 -2.9094120365137379 8.1617446768409501 32 32 34 0.39171624077837958 5 1994 6 5798 1 701
297 1.4154936320493863 -2.1661759002718295 9.1774822402827692 214 183 163 0.71836921441944013 5 2950 6 5794 7 6308
296 -2.393201458561518 -3.1296581229567533 8.1007363815925029 21 26 38 0.3922572363659107 5 2824 6 5762 2 1733 3 4411
295 1.4416074137091757 -2.6914264974705135 9.1543428598858672 183 153 129 0.43509663722166558 5 2892 7 4952 6 5723
294 -6.4442733484737209 0.19038791525943854 9.4376794741684122 114 86 64 0.54806829276218227 7 5673 6 5596 3 2113
293 -4.8908537686578386 -1.1133908897940106 9.2632099768965066 155 129 102 0.72748426751247042 7 5329 6 4996 2 1202
292 -7.6027606027545787 -2.2055803670847149 9.0802777417104004 138 110 88 0.65702921625601352 7 4995 6 4902 2 967
291 -7.1989564912787287 -2.0635345337298334 9.0792032270483052 155 127 103 0.67494974593731827 5 1484 7 5036 6 4899
290 -7.6410550818215475 -2.2327283837198144 9.0805190456081686 192 164 142 0.62942939185063806 5 1451 6 4887 2 226
289 -5.8978559309275722 -2.0693903172897352 9.1174273940183461 200 174 149 0.23833110720780123 5 1464 7 5043 6 4758
288 -7.7142719679659919 -2.7625011918951525 8.9578624437892795 190 163 136 0.97257036727425816 5 1362 7 4876 6 4724
287 0.05170141151063079 -0.53021152066145572 9.4331015184020242 177 152 129 0.60914439392753261 5 2541 7 5542 6 4680
286 0.1698914895812611 -0.65879297872326781 9.3680953096206672 165 136 120 0.82958683996771465 5 2503 7 5509 6 4632 3 4111
285 -8.2655414214908642 -3.4719704248483003 8.8836398533713119 136 108 84 0.23558063120100167 7 6097 6 4602 5 2037
284 -1.5693450789353562 -1.0304003876580772 8.427626061760332 31 38 48 0.22297343953851434 7 5341 6 4586 3 3786
283 -6.1791633059043027 -3.0754741721546583 8.9968402389106252 113 86 59 0.44300080276375864 5 2082 6 4550 3 939
282 -0.98949573675262714 -1.0991193408631164 8.4584340180773001 34 37 42 0.35874529198339955 5 2324 6 4531 4 1455
281 -7.4615457862208148 -3.6049443135930002 8.881826829082728 192 166 141 0.33368036501137494 5 1263 7 4687 6 4522
280 -7.2064682314939184 -3.8766884021687842 8.8125227708003564 136 108 86 0.86172464792867609 5 1983 7 4659 6 4445
278 -3.6902064475933978 -2.4878036928263061 8.1630841323827958 21 17 9 0.83293772105076258 7 3219 6 4404 2 1099 5 2062 1 493 4 2124 3 1389
277 -3.1510543413770158 -3.0711774814473318 8.1100213926073046 174 165 156 0.41190479419517417 5 1975 7 4784 6 4258 2 1018 3 2371 1 500 4 1108
276 -2.9044927395836782 -2.999848711656024 8.1266000226766533 181 180 149 0.23607268609794244 7 4801 6 4254 2 1071 1 540 4 2244
275 -3.0477089743845993 -3.0436532332861104 8.1170404420130851 166 157 148 0.30506110004106352 7 4789 6 4252 2 1041 3 2394 1 522 4 1119
274 -3.0478115900417788 -3.0425098277581801 8.1133625698539831 166 157 148 0.25316735968006904 7 4788 6 4251 2 1042
273 -2.9577191908682821 -3.111205473731105 8.1144861789662581 42 29 20 0.39185148780064277 7 4777 6 4228 2 1038 3 2411 4 2229
272 -2.9576368438383915 -3.110101600206129 8.1141832746219045 42 29 20 0.40707405841008298 7 4776 6 4227 2 1037 1 527 3 2412 4 2230
271 -2.9066396176109053 -3.112296374914151 8.1116075789693927 185 173 163 0.47816330602267648 7 3075 6 4220 3 2428 4 1148
270 -2.7473266434822539 -3.3197542732924838 8.0919529319401242 29 29 31 0.340395852972531 5 1929 7 4707 6 4142 2 1013 3 2446 1 528 4 2264
269 -7.3206118829045046 -0.62266270996439976 9.2987992418119862 104 81 57 0.22352917213941584 7 3895 6 3848 3 52
268 -6.648013998429307 -1.9616095982144861 9.1111828562672645 195 167 145 0.63499509369997231 7 1796 6 3276 3 83
267 -7.0466342857638296 -2.1885911015232185 9.0602343886082704 128 102 77 0.47879189137408118 5 799 7 3357 6 3225 2 236
266 -6.7738488754901596 -2.4668173282401793 9.0489736965232677 140 112 90 0.1816079793327563 5 767 7 1677 6 3067
265 0.038851103378553575 -0.63044451527845169 9.3752915483476276 175 148 127 0.60829997483355569 5 1667 6 2966 3 2892
264 -1.4129181137534945 -0.76645968371293516 8.4744514472887911 44 44 42 0.62628378437688814 5 1614 6 2959 3 1626
127 -3.2088383245863219 -3.0539207373728914 8.1144931993032028 22 13 16 0.44837951508623125 5 2844 7 6135 6 5811 2 1440 3 3349 1 654 4 3438
126 -3.2699639266668057 -3.1102356346608118 8.1042570804162182 16 12 12 0.35260115872957237 5 2841 7 6122 6 5807 2 1432 3 3334 1 646 4 3426
125 -3.2697676207409758 -3.108179950659375 8.1000025775454674 16 12 12 0.3295084820543247 5 2840 7 6121 6 5806 2 1433 1 647
124 -2.9845932963110697 -3.2013392219964061 8.1150078884072556 27 28 12 0.60736231749026304 5 2822 7 6112 6 5781 2 1713 3 4365 1 792 4 4751
123 -7.55476894525688 -3.4284100007318159 8.8883846196799077 97 71 48 1.7080705027974146 5 2038 7 6105 6 5983
122 -2.7484064410132807 -3.248043259430506 8.0753993880997239 176 172 161 0.51271733862417124 5 2808 7 6101 6 5761
121 -0.13432034186289188 -4.0367599825247948 8.9503841291817228 166 139 118 0.76776965544156284 5 2775 7 6071 1 736
120 -0.053191340920949792 -4.0776026033874988 8.8994163669184481 164 140 116 0.88238948324178157 5 3503 7 6062 1 869 4 5772 3 5258
119 -5.5326260059658638 -4.1579684988519059 8.8205588102815682 134 110 86 0.4272027839575343 5 1927 7 6031 1 268
118 -5.5441100831289125 -4.1753638930975869 8.8457206532742951 134 110 86 0.6194102954563997 5 1926 7 6030 6 5833
117 -6.7286420972992449 -4.2858000089184136 8.7901237090345052 135 109 86 1.433882058368728 5 1921 7 6008 6 5859
116 -6.7286420972992449 -4.2858000089184136 8.7901237090345052 135 109 86 1.433882058368728 5 1920 7 6007 6 5858
115 0.036214071305416207 -0.73928797018401204 9.3706116501545456 159 140 123 0.50385631513796381 5 3148 7 5483 6 4624 3 4860
114 0.49930736225553762 -1.1599468873494772 9.3369347043086446 181 153 141 0.6363248656401248 5 3109 7 5380 6 5952 3 4900
113 0.48948883300999946 -1.2318035162629886 9.3050502227189309 203 176 159 0.60061114031744689 5 2354 7 5349 6 4476 3 4895
112 -1.1868402579991135 -1.0603320625529691 8.4390887862533859 13 13 10 0.37376778447736569 5 3069 7 5340 2 1619
111 -1.7839342046992628 -1.1372238413246565 8.3935286038440058 4 7 14 0.35248539159610071 5 3060 7 5296 6 5992 4 3758
110 -1.7819491815606927 -1.1441413568650665 8.4107386228295411 4 7 14 0.15634433573601761 5 3059 7 5295 6 5991
109 -1.7397536237221605 -1.1940979597779429 8.3966527724142388 10 8 13 0.3966255007518999 5 2295 7 5270 2 1293
108 -0.95312594413674279 -1.4360949907075833 8.3855013165146737 13 23 34 0.7216710186974743 5 3007 7 5200 6 5928 2 1844 3 3872 1 744 4 3991
107 -5.7601368411050782 -2.0321674083063033 9.1053720636820703 107 82 60 1.0534510641960357 5 1471 7 5049 6 4747
106 -5.8476266574572087 -2.339068631107406 9.110614477733364 94 67 45 0.65849639212384503 5 2190 7 4976 6 4692
105 -3.7326272907213083 -2.3310758449204925 8.1835023703498262 24 14 8 0.59161615738892726 5 2088 7 4922 6 4441 2 665 1 342
104 -6.1909158649191944 -2.6222155371462681 9.0735207787758867 134 110 86 0.88409377636387443 5 2147 7 4910 6 6028 2 988
103 -3.6607307887694676 -2.4156426288254988 8.1756002455821815 22 14 4 0.29730510120085657 5 2073 7 4909 6 4417 2 1113 1 504 3 3309 4 2127
102 -3.5148142245937803 -2.541253214427011 8.1594636398335325 168 164 132 0.22752094826534375 5 2885 7 4882 6 5888 2 1103 3 2338 1 512 4 2135
101 -3.5998500503950144 -2.5975284003349115 8.1507627253412398 173 168 146 0.50522404324697456 5 1287 7 4875 6 4376 2 1085 1 492 4 1045
100 -6.5726301292641054 -2.8643112793736383 9.035837667370048 129 107 83 1.0850677854411133 5 2120 7 4865 6 4618
99 -7.0030523839096652 -2.8586275202617775 8.9928767643262866 127 100 79 0.18125207474388771 5 1341 7 4861 6 4646
97 -3.4342297421706922 -2.6972544764637347 8.1479684774428112 17 12 23 0.29195375466218454 5 2024 7 4855 6 5863 2 1082 3 3332 1 505 4 2138
96 -7.6155436364294378 -2.8714188734430199 8.9790209781072843 123 95 73 0.56008975885681511 5 1354 7 4853 6 3024
95 -3.4104840911324028 -2.7449767451053595 8.1423740005416558 173 170 153 0.29264883397622349 5 2018 7 4850 6 4344 2 1073 3 2341 1 501 4 2140
94 -7.0202147800629566 -3.0023499018066735 8.974775670420545 104 77 56 0.79548557264171682 5 2100 7 4840 6 4615
93 -3.0104111326806011 -2.9079931573489861 8.127741938589125 171 170 128 0.2533964336282144 5 1999 7 4824 6 4282 2 1083 3 2423 1 536
92 -3.1655603315890262 -2.9223380593243888 8.1295333301390542 176 174 159 0.45782779936771101 5 2860 7 4821 6 5824 2 1455 3 3357 1 663 4 2171
91 -3.1193930338579272 -2.9428415293495114 8.1281595479047759 21 15 13 0.23723834287306561 5 1996 7 4817 6 4285 2 1057 3 2384 1 521 4 2185
90 -7.2308171878695759 -3.1753442718582918 8.9456838873465792 93 65 44 0.47733547759805223 5 2074 7 4807 6 6001
89 -3.0947201085846192 -2.9844323062428013 8.1253279050915186 175 172 167 0.41589395655200906 5 1990 7 4805 6 4270 2 1045 3 2386 1 518
88 -3.2295818686629825 -2.9958495791511766 8.1140959116639273 163 160 139 0.34897516688864588 5 1989 7 4800 6 4279 2 1443 3 3346 1 653 4 2161
87 -3.2291827931089339 -2.9954501549416137 8.1152166315358283 163 160 139 0.25250891199275594 5 1988 7 4799 6 4278 2 1442 3 3347 4 2162
86 -7.2091113145359085 -3.2320151060372626 8.9183658460108166 129 103 80 0.40517231893257688 5 2064 7 4793 6 5995
85 -2.955568459444315 -3.0531322218350563 8.1151645574224265 170 162 143 0.48877637585776768 5 1978 7 4790 6 4244 3 2420 1 530 4 2228
84 -2.898003540932554 -3.0590547351382833 8.1197594387040262 22 19 14 0.30945338033049424 5 1977 7 4787 6 5797 2 1457 3 3382 4 3489
83 -2.8980142071382566 -3.0583777330615844 8.1191247142231546 22 19 14 0.29658509556671725 5 1976 7 4786 6 5796 2 1456 3 3383 1 534 4 3490
82 -3.3232448661332934 -3.0846254554636823 8.1085680924681185 176 174 162 0.31584040522699114 5 1974 7 4780 6 4266 2 1435 3 3329 1 645 4 2146
81 -3.3232066742950357 -3.0836691088983517 8.1052825731692106 176 174 162 0.2196833925007623 5 1973 7 4779 6 4265 2 1434
80 -2.7936224724906249 -3.112440321953184 8.1141228234575831 174 168 141 0.35933248935290452 5 1962 7 4778 2 1054 1 672
79 -3.0514463249218142 -3.1307579752102956 8.1405838451424728 4 1 0 1.4814033439408287 5 1202 7 4775 6 4236 2 1025 4 1120 3 1458
78 -2.9373666120398689 -3.1525151935053062 8.1082384615875096 182 173 164 0.51639579558790305 5 1193 7 4767 6 4212 2 1026 3 2415 1 354 4 1133
77 -3.2497203893299047 -3.1655260867196535 8.0993524352956303 171 175 168 0.36985500663021886 5 1960 7 4756 6 4239 2 998 3 2343 1 481 4 2158
76 0.3565065100828827 -3.6709693955161526 8.9625898251003679 159 131 111 1.8770268419196534 5 2804 7 4747 1 745 4 5250
75 -2.700721933239318 -3.2123984598361379 8.1005199031842761 168 167 153 0.25637601772054142 5 1951 7 4739 6 5771
74 -2.7009944127021455 -3.2103892679936914 8.0965395881530462 168 167 153 0.24166355672711479 5 1950 7 4738 6 5770 2 1448
73 -2.8905816799044608 -3.2022201946456557 8.1024722444330841 167 165 155 0.7576335805191251 5 1955 7 4737 6 4189 2 1019 1 524 3 3378
72 -2.9321125362338716 -3.2314339294426744 8.0935180130877082 16 16 18 0.86036702341660254 5 1947 7 4728 6 4181 2 579 3 1467 1 353
71 -2.9758427786324764 -3.2525699634647136 8.0919831253776202 168 164 140 0.25171453930572979 5 1945 7 4724 6 4183 2 1006 3 3365 1 506
70 -2.6910199525716547 -3.2679086487244384 8.1025237691428167 25 26 27 0.41809281866628828 5 1940 7 4720 6 4155 2 1029 3 3399 1 541 4 2276
69 -2.7973344689323665 -3.306662429779605 8.0972851533135639 181 181 169 0.50611266578581304 5 1935 7 4709 6 4154 2 1436 3 3386 1 667 4 2256
68 -2.810799285048593 -3.3620971202325336 8.0858894474139458 16 18 22 0.71606736537661497 5 1916 7 4697 6 4140 2 569 3 2430 4 1166 5 1153
67 -3.0728009866292458 -3.3449985539464357 8.084973964280211 165 167 151 0.39541478493487281 5 1928 7 4696 6 4168 2 1421 3 3354 1 488 4 2194
66 -2.8522279211887542 -3.390493528472768 8.0825191030528831 167 162 140 0.40791782614290772 5 1911 7 4692 6 4137 2 994 3 2416 1 511 4 1159
65 -2.8522279211887542 -3.390493528472768 8.0825191030528831 167 162 140 0.40791782614290772 5 1910 7 4691 6 4136 2 993 3 2417 1 510 4 1160
64 -2.8482994765072611 -3.4470073026484229 8.0730727812828356 19 17 30 1.3177347873729561 5 1898 7 4682 6 4123 2 1420 3 2413 1 507
62 0.27915242093021042 -3.9721708314741546 8.9187225268601313 206 180 157 0.58178085243971189 5 2776 7 4680 1 876 3 4778 4 5235
29 -3.2050417408968048 -2.2224661278269666 8.211051743642404 155 154 134 0.28861134335382155 5 705 7 1702 4 327
28 -3.2372275623154487 -2.2545455712701181 8.2179581064472256 159 159 158 0.53988893551243422 5 1325 7 1695 6 2732
27 -3.1943861176068205 -2.293464148296644 8.2084429220518622 160 158 158 0.22072350536928442 5 696 7 1682 6 1321
26 -3.7375242436499128 -2.2716780263367657 8.1889857762378906 157 158 162 0.38449904437653509 5 703 7 1680 6 1377 2 326 3 370 4 271
25 -3.566680725875786 -2.5722644800716594 8.1545966326486159 21 19 7 0.33540492911524722 5 674 7 1590 4 296
24 -3.4282453439540315 -2.6404240340318812 8.1487554189548224 179 176 159 0.31742536431001794 5 1281 7 1574 6 1266
23 -2.5736284600411237 -2.8727294605987246 8.1481204943374426 17 18 14 0.42788257517997819 5 624 7 1520 2 668 1 226 4 385 3 494
22 -2.5641588564006024 -2.9042164905873258 8.1475998631520099 165 165 157 0.40464728336609701 5 151 7 1513 6 1164 2 322 3 495 1 224 4 387
21 -2.4656905009046741 -2.9984718239525878 8.1396097016239857 26 23 14 0.44544182815669886 5 606 7 1495 6 1150 1 228 4 391
20 -2.4646255646884776 -3.0006147894822393 8.1426398044071409 26 23 14 0.22707591436103533 5 605 7 1494 6 1151
19 -1.4779967929150151 -0.85267819843918424 8.4827040880076723 11 14 19 0.38657216015001145 5 903 7 787 6 1532
18 -1.6989769103181036 -1.0972580728126833 8.4169435093188625 109 110 97 0.34827851986617947 5 336 7 713 6 449
17 -1.2515577421171455 -1.1162147009749801 8.425324469344881 16 21 14 0.32516190740294304 5 870 7 712 2 842 3 675 4 462
16 -1.7407320682099936 -1.12843265875663 8.4085485589003426 126 125 119 0.18873642097543306 5 330 7 699 6 447
15 -3.4509393011636305 -1.9777162373597834 8.2579305656775261 158 152 141 0.40292476482283118 5 259 7 487 6 1424
14 -3.3702139590161466 -2.1354451951206572 8.273248731031476 153 156 155 1.9995144143265835 5 248 7 451 2 86
128 -3.1015794263334846 -3.035782314505707 8.1148523199630969 18 17 15 0.39251163894561891 5 2846 7 6141 6 5809 2 1447 3 3360 1 659 4 3457 3 3359
1 -3.1025679737432252 -3.3448916902603045 8.0474786185932672 6 13 23 0.5450172911293879 5 91 7 209 6 97
60 -2.9119393843968937 -3.5151980496931428 8.0687987061420134 160 164 161 0.39591988344109907 5 2788 7 4674 6 4116 2 1416 3 3362 1 650
129 -2.4931567072746863 -2.9579749277074994 8.1439814122421978 88 88 76 0.31450927679969992 5 2847 7 6153 6 5789 2 1743 3 4409 1 697
2 -3.077586485204495 -3.0692439444123245 8.1174808460891725 30 29 25 0.27262878686544861 5 128 7 251 6 153
259 -1.7683613117390942 -1.2167997201217855 8.3933795645084892 155 160 156 0.12235894963339648 5 1512 6 2864 3 1573
61 -2.9119393843968937 -3.5151980496931428 8.0687987061420134 160 164 161 0.39591988344109907 5 2789 7 4675 6 4117 2 1415 3 3361 1 649
130 -2.493372778390901 -2.9591219819454109 8.145937660131068 88 88 76 0.33182196724128382 5 2848 7 6154 6 5790 2 1744 3 4410 1 698 4 3573
3 -3.2853224649283601 -2.6273778395632688 8.1578630826355134 168 171 167 0.21832102758656119 5 668 7 333 6 1259 3 413
260 -6.2268409344564946 -2.9730181217655338 8.957028845668523 154 126 102 0.33417578190525438 5 701 6 2872 3 925
131 -7.3185740639766461 -3.0981381427443 8.9556946597869107 102 74 53 1.1460637402396017 5 2912 7 6161 6 6010
4 -3.2845534244732919 -2.62836648616199 8.1589673531521569 168 171 167 0.28053432090408009 5 669 7 334 6 1260 2 648 1 200 3 414
261 -1.5505306698899712 -1.0007072643187633 8.4271583048990983 209 215 208 0.39719767321690425 5 1556 6 2902 4 444
5 -3.3724016302382251 -2.523156504466427 8.1597099249946528 155 158 150 0.414952916287742 5 676 7 366 6 1286 2 319 1 50
262 -6.4000493193274508 -2.9241118494455018 9.0096687923180951 140 112 90 0.67545072198130562 7 3175 6 2906 2 527
6 -3.3732918193086672 -2.5255432060536847 8.1628814806784735 155 158 150 0.47973959440310704 5 677 7 367 6 1287 2 320 3 1429 1 51
263 0.39606318840056354 -0.7186748945292587 9.3752604532127162 171 144 123 0.32130493914033642 5 2476 7 3943 6 2907
7 -3.9058220626455142 -2.4200116646383476 8.1772858281977943 177 182 185 0.34335719237209394 5 221 7 387 6 1355
8 -3.705757650590801 -2.3098175223773456 8.1898488011556605 165 157 154 0.26092871703302295 5 229 7 410 2 52
9 -3.7075748577766001 -2.3131188197949308 8.1989566656241557 165 157 154 0.38280431693353933 5 230 7 411 6 325
10 -3.2183220694175634 -2.2809230041920232 8.2058582494286636 18 12 14 0.12454304367357961 5 231 7 421 6 284
11 -3.2183220694175634 -2.2809230041920232 8.2058582494286636 18 12 14 0.12454304367357961 5 232 7 422 6 285
12 -3.1517112226468527 -2.2453303072208923 8.2223382932027924 163 166 154 0.24758697493748025 5 236 7 434 6 294
13 -3.1629363336818366 -2.2129061674750523 8.2107534881351096 18 19 10 0.44944904290673926 5 239 7 437 6 304 2 85
30 -3.6865483709103946 -2.2011476468906834 8.2077009770074287 155 159 162 0.1841720127370913 5 712 7 1704 6 1391
31 -3.6865483709103946 -2.2011476468906834 8.2077009770074287 155 159 162 0.1841720127370913 5 713 7 1705 6 1392
33 -1.4615589453258806 -0.92478049898378933 8.4484215184052971 128 131 124 0.23605598885808987 5 346 7 2134 6 466 4 449
34 0.33376889771144613 -0.2591064594276995 9.4500445614509712 169 145 133 1.5354694144724246 5 928 7 2339 6 3056
35 -3.012022976896064 -3.2353681770612122 8.0928664378528143 28 25 5 0.63746134312060398 5 569 7 3042 6 2475 2 247 3 1451
36 -3.0359399981819832 -3.1994559252696857 8.1009471778920901 180 184 166 0.66161518793856977 5 1185 7 3053 6 1149 2 1009 3 1449 1 502 4 336
37 -2.7830095811258184 -3.1565978379579933 8.1107248090571993 17 17 18 0.38220444560339917 5 1189 7 3062 6 2481 4 1172 3 2449
38 -3.0038572252257421 -3.0942895139007605 8.11272772718924 177 173 164 0.39147159449709978 5 1203 7 3077 6 4237 2 1034 3 2402 1 523 4 2215
39 -2.8484964047550694 -3.0699944985846503 8.1173688811762812 177 172 140 0.44916329175459113 5 1206 7 3084 6 2509 4 1163
40 -2.9509552059782322 -2.9478280796136711 8.1249656735797124 171 169 144 0.28163874259352573 5 1231 7 3123 6 2543 2 1078 1 372
41 -3.5915343960127779 -2.6886450747427348 8.1470071370661845 17 13 10 0.72642976035009887 5 662 7 3176 6 2641 2 611 3 2302 6 4358 1 330 4 293
42 -3.4753268835932656 -2.6668749881479039 8.1305430464726438 188 177 166 0.83186680881800312 5 1270 7 3179 6 2625 1 188 3 392
43 -3.5559007300358045 -2.6649029645042313 8.1465588285780406 189 178 182 0.4798752789403859 5 1277 7 3184 6 2637 2 1076 3 2314 1 333 7 4860
44 -3.51395805559841 -2.6580594207950607 8.143171923366685 20 5 8 0.65380654221184054 5 1278 7 3185 6 4359 2 623 1 186 3 1405 4 306
45 -3.5186958649378499 -2.6702367720793001 8.1525034609871589 20 5 8 0.7353073010408353 5 1279 7 3186 2 622 1 335
46 0.91881640048968494 -3.1180079439398241 9.0627510235348421 205 177 155 1.1256197171941331 5 1243 7 3191 6 2373
47 -2.8245369348549829 -2.6229243455212461 8.1666589358060726 15 17 8 0.26887846781669295 5 1274 7 3199 6 4321 2 1125 3 1491 1 391
48 -2.8245369348549829 -2.6229243455212461 8.1666589358060726 15 17 8 0.26887846781669295 5 1275 7 3200 6 4322 2 1126 3 1490 1 390
49 -3.4965178255921612 -2.5993160158222666 8.1548568688948606 41 27 17 0.68140767330350849 5 1284 7 3203 2 1097 6 4373 1 344 4 1062 3 1407
50 -3.803289291922856 -2.3586424080942834 8.1684304420312088 27 22 5 0.69671371938289628 5 2085 7 3237 6 4438 2 1109 3 2276 1 491 4 2107
51 -6.7448159968682813 -1.3205750758727075 9.2078873422896894 99 75 51 0.76741546768604962 5 1620 7 3636 6 3540
52 -1.3583360285333481 -1.1829534378158673 8.4109080623711687 140 141 137 0.52112267298282766 5 1514 7 3693 4 1403 3 2699
53 -1.6511302434494537 -1.103241875053913 8.4076258697277542 6 8 4 0.39049866033358305 5 1534 7 3716 6 2884 3 2663 1 234
55 -1.1412188174558384 -0.99848989718611736 8.452825386258997 149 146 139 0.52780981843409536 5 1554 7 3766 2 1308 4 1447 3 2727
56 -1.0969542436722666 -4.4471202488561481 8.8467802434079772 165 139 116 0.34869227889753568 5 1820 7 4607 1 729
57 -7.7287889160735306 -3.9099556652317622 8.8086641605418663 94 66 45 0.64035821120797232 5 1221 7 4651 6 4470
58 0.065405195513452585 -4.1351749865230296 8.9021228656376543 169 145 122 0.54458274164053899 5 1856 7 4661 1 737 3 4753
59 -7.1013837333178405 -3.866740677177062 8.8483190845283861 100 73 52 1.1689218364019178 5 1985 7 4662 6 5926
132 -3.059126020026667 -2.889814803359656 8.1334417848966041 20 19 12 0.24869867845441423 5 2004 7 6162 6 5825 2 1463 3 3371 1 533 4 2202
133 -3.1190590937225657 -2.8828361922000352 8.1342466865876357 184 181 148 0.46048707089386376 5 2863 7 6165 6 5827 4 3456
134 -3.0693443059517107 -2.8328656873706346 8.1409108314653444 165 162 133 0.22919333133710831 5 2010 7 6170 6 4303 2 1470 3 3374 1 670 4 2200
135 -3.5128041325511896 -2.79419162055218 8.1357965841704232 179 176 155 0.38275855942896786 5 3586 7 6174 6 6730 2 1720 3 4333 1 787 4 3388
136 -2.6350190338818318 -2.8090888021255527 8.152332313806955 106 107 98 0.32142936446522813 5 3575 7 6177 6 6713 2 1750 3 4394 1 809
137 -2.6355023384352041 -2.8104111395990166 8.1542173011214274 106 107 98 0.34906944142865631 5 3576 7 6178 6 6714 2 1751 3 4395 1 810 4 3545
138 0.064368753807136803 -3.2076693566867962 9.0238004523174489 167 142 120 0.6636528761335142 5 2864 7 6179 6 5710 3 4781
139 -3.5374769287558938 -2.7248056827640394 8.130867349837791 15 9 6 0.40743040714865458 5 2875 7 6186 6 5860 2 1458 3 4331 1 648 4 3385
140 -7.6615184339889026 -2.7701828325259252 8.978635663411854 91 65 42 0.63668424336468754 5 2136 7 6196 6 6048
141 -3.4001648822613895 -2.5719541228142329 8.1530682610302687 29 25 17 1.036577202499809 5 2882 7 6198 6 5881 2 1478 3 2357 1 516 4 2143
142 -3.7991753353041506 -2.4663973622549049 8.1587735520583955 21 15 3 0.38094693600192492 5 2895 7 6210 6 5906 2 1469 3 3282 1 482 4 3357
143 -3.4528141754252721 -2.4763993326988607 8.1710449976265629 170 169 139 0.3924030943589662 5 2890 7 6211 6 5893 2 1482 3 3338 1 669 4 3398
144 -3.8358831889709744 -2.3993050346434877 8.1645735154889252 172 170 146 0.37249967112149318 5 2907 7 6219 6 5912 2 1473
145 -3.5989507092128079 -2.3569174935871153 8.1815208760906692 10 9 13 0.23489249504308102 5 2911 7 6224 6 5909 2 1120 3 3321 1 515 4 2130
146 0.34841331602768111 -2.7860282006213413 9.1114724444996256 165 138 119 0.52078277393271866 5 3608 7 6230 6 6667
147 -3.6766769467377771 -2.2782168424968536 8.1903560064052634 4 2 8 0.46248138311070341 5 2099 7 6240 6 5931 2 1485 1 514 3 2321 4 2125
148 -1.2266530026901368 -1.2673981651568234 8.4038596613953338 144 149 140 0.40559643323440281 5 3692 7 6389 6 5963 2 1847 3 3838 1 878 4 3902
149 -1.0885151947737004 -1.2432601319569896 8.4586559170721483 103 102 105 0.68859032463491054 5 3697 7 6399 6 6771 1 890
150 -0.96153231807458761 -1.1876989253758425 8.4312467326347598 116 121 115 0.39703277216765182 5 3704 7 6406 6 5959 2 1879 3 4707 1 897 4 5004
151 -0.96153231807458761 -1.1876989253758425 8.4312467326347598 116 121 115 0.39703277216765182 5 3705 7 6407 6 5960 2 1880 3 4708 1 898 4 5005
152 -1.0865324762383088 -1.0620744503063015 8.4502930989704979 109 106 96 1.7667303666604466 5 3071 7 6429 2 1883 3 4692
153 -1.091264030368537 -1.0567001153796274 8.4587488428379842 109 106 96 0.65901035497738703 5 3072 7 6430 1 896 3 4693
154 -1.1566977790185544 -1.0053309048499302 8.4490416251109615 139 136 129 0.22631488789867535 5 3725 7 6439 2 1885 1 748
155 -7.227447286961433 -0.22066740149042197 9.3173274585579016 106 79 58 0.63026629903165887 5 3255 7 6544 6 6503 2 1186
156 -6.039290159482599 -4.5651765002838198 8.801175562442948 130 103 81 0.76456973400528783 5 2772 7 6817 6 6709
157 -6.7299306646178918 -3.8037427468816967 8.7888398522840454 133 109 85 1.4056584996118553 7 6866 6 6748
158 -7.9953008088223285 -3.7129110316536114 8.8429557342483367 101 73 51 0.41502305656675537 5 2869 7 6871 6 6784
159 -7.9953008088223285 -3.7129110316536114 8.8429557342483367 101 73 51 0.41502305656675537 5 2870 7 6872 6 6785
160 -3.1133292743604279 -3.2076155007885503 8.0972169252153066 20 18 19 0.50282677892609151 5 3551 7 6891 2 1710 1 789 4 4733
161 -3.1133292743604279 -3.2076155007885503 8.0972169252153066 20 18 19 0.50282677892609151 5 3552 7 6892 2 1711 1 788 4 4732
162 -2.7894504883211315 -3.2010512566826517 8.105068630781858 15 19 25 0.47152601079932926 5 3548 7 6899 6 7155 2 1977 3 5057 1 925 4 4768
163 -2.7889291711806798 -3.2012939712425674 8.1071064210597221 15 19 25 0.47937726892191235 5 3549 7 6900 2 1978 3 5056 4 4767
164 -7.8847690479877137 -3.3215842298243761 8.9154489271708961 92 64 46 0.25070682241577863 5 3609 7 6905 6 6810 2 1668
166 -2.3508841487796519 -3.1096598688531594 8.1288504247170437 130 131 124 0.2032259056564758 5 3556 7 6920 4 5574
167 -3.0979096535301909 -3.0872686473666473 8.126346459169584 22 22 14 0.668435634220507 5 3564 7 6921 6 6699 2 1717 3 4359 1 657 4 4738
168 -7.5850517335832333 -3.090572791542944 8.9681981967906186 136 108 85 1.9923508110498138 5 2913 7 6937 6 6818
169 -7.5850517335832333 -3.090572791542944 8.9681981967906186 136 108 85 1.9923508110498138 5 2914 7 6938 6 6819
170 -2.6949197774615015 -2.7458220093774446 8.1518373759400884 73 76 62 0.49008724371191908 5 3581 7 6950 6 6715 2 1753 1 807 3 5078 4 4789
171 -2.6949197774615015 -2.7458220093774446 8.1518373759400884 73 76 62 0.49008724371191908 5 3582 7 6951 6 6716 2 1754 1 808 3 5079 4 4790
172 1.0697337804354126 -3.0794171859944712 9.0818797616801508 176 148 126 1.0989517049062612 5 4007 7 6957 6 6623
173 -3.3456995852813312 -2.5946026257280326 8.1606104516727669 173 173 148 0.4657362217547516 5 3599 7 6959 6 6735 2 1739 3 4352 1 797 4 3419
174 -3.7509598628209537 -2.5407719063890593 8.1545833162807888 186 182 157 0.25044913126349239 5 3605 7 6963 6 7207 2 1730 3 4999 1 785 4 4643
175 -6.8456664018819415 -2.6824712319253057 9.0179431668955807 100 74 55 0.57323705331028596 5 2952 7 6964 6 6827 1 624
176 1.0014897935468787 -2.7993480666086881 9.1062434460062534 181 153 131 0.66795538780368213 5 3601 7 6971 6 6638
177 -7.1854372479321515 -2.3498473345030653 9.003029143198864 135 108 87 0.26034569320992479 5 2988 7 6984 6 7297
178 -3.4618862709595493 -1.9793023459544243 8.238662848011769 136 129 120 0.33971041796284318 5 3651 7 7002 6 7234 2 1761 3 5033 1 800 4 4693
179 0.79035708235156454 -2.338636591693382 9.1608183879569953 167 140 121 0.7482138309645322 5 4046 7 7008 6 6696
180 -7.5193348647987941 -1.5126831168346029 9.1604025184175004 112 88 62 0.71651021054270814 5 3107 7 7031 6 6930
181 -0.90126685336817025 -1.4225045250069028 8.3960878380612876 133 131 118 0.48467514229200687 5 3684 7 7038 6 6754 2 2083 3 5235 1 1031 4 5014
182 1.101353944019273 -1.5819425712916888 9.2740662102531211 205 181 157 1.3379645629091066 5 3690 7 7046 6 6741
183 -1.0264669900910715 -1.2036023471639354 8.4242308614884553 20 23 32 0.52475778521458927 5 3700 7 7059 6 6772 1 893
184 -1.0229465227394883 -1.2083819002976302 8.4262208519066917 20 23 32 1.181882454781007 5 3701 7 7060 6 6773 2 1873 1 894
185 -1.7149906282098057 -1.1304625503815457 8.4020669473420408 89 84 65 0.29506526527775417 5 3715 7 7067 6 6800 3 5166 2 2066 1 1007
186 -1.2535504719101562 -1.1541139839190111 8.4191692463500942 20 23 28 0.47175917485936364 5 3709 7 7068 6 6783 2 1861 3 5203 1 880
187 -1.0380472536314667 -1.1086744491173424 8.4400664962939889 132 130 115 0.53324107540971699 5 3716 7 7076 6 5969 3 5230 4 4990
188 -1.0357021759343561 -1.1120213059724913 8.445347369211909 132 130 115 0.76188637810113136 5 3717 7 7077 6 5970 2 2107 3 5231 1 1032 4 4991
189 -1.2382013151977573 -1.0872452610119951 8.4313708405484942 111 109 95 0.48288492133314381 5 3720 7 7078 6 6790 2 1875 3 4669 1 885 4 4968
190 -1.237812964579531 -1.0873671276404904 8.4326941590137459 111 109 95 0.56858707100339445 5 3721 7 7079 6 6791 2 1876 4 4969
191 -1.6284807857771417 -1.0503514715028506 8.421445721635699 126 124 101 0.2852659732796089 5 3723 7 7081 6 6805 2 1845 3 4627 1 874
192 -1.6277061773161563 -1.0486698436267918 8.418589398575504 126 124 101 0.44658247728954825 5 3724 7 7082 6 6806 2 1846 3 4626 1 873 4 4923
